ply
format ascii 1.0
element vertex 1308
property float x
property float y
property float z
property uchar red
property uchar green
property uchar blue
end_header
0.837041 3.64785 7.91479 90 99 93
0.334809 1.59747 7.70391 102 108 101
-0.241321 1.70565 7.70296 101 109 102
-0.854463 2.12583 7.39721 106 109 99
-0.0501523 1.54075 7.66523 144 127 120
-0.479675 1.33222 7.50686 150 121 113
-0.0815535 1.40248 7.62042 110 115 110
-0.0812819 1.40554 7.60946 111 113 107
0.125756 1.80229 7.74041 245 225 214
-0.786462 4.71325 7.82884 125 129 117
-0.786462 4.71325 7.82884 125 129 117
1.92614 2.34286 7.72501 94 103 102
1.30084 2.52438 7.93334 243 238 235
-0.444985 1.54976 7.57458 167 140 127
0.619648 1.9235 7.88981 97 102 105
0.620193 1.92189 7.89799 100 105 108
-1.03071 1.48023 7.12767 108 112 101
0.128874 2.51872 7.91015 172 164 159
0.609544 1.67076 7.87937 118 122 115
0.107803 1.52764 7.67838 100 98 97
0.526808 2.04737 7.90644 223 205 198
-0.63754 1.62572 7.5237 138 120 114
-0.596214 1.98598 7.67722 209 178 163
-0.596214 1.98598 7.67722 209 178 163
1.51731 2.64747 7.79831 90 101 96
-0.201105 1.41587 7.57856 155 134 119
-1.82933 1.6015 6.4516 140 116 110
-0.474153 1.52589 7.54991 153 146 122
1.15381 4.80697 7.74371 94 104 98
-0.144673 1.91465 7.79005 104 111 103
-0.256238 1.39878 7.58438 97 99 97
0.0411389 2.30877 7.91755 205 189 185
-1.06884 1.37472 7.07931 113 112 102
-1.17192 2.04324 6.97702 148 139 122
0.471306 1.57605 7.78358 199 155 139
-0.800514 1.99851 7.44091 157 130 127
-0.800514 1.99851 7.44091 157 130 127
-0.145745 1.47163 7.62313 168 144 131
0.429714 1.76883 7.79904 118 121 108
0.628311 1.94663 7.8982 104 111 108
-0.925878 4.66453 7.67785 164 155 140
-1.68067 1.58047 6.57078 188 168 158
-1.72115 1.96678 6.47081 99 101 93
0.102259 1.62587 7.69661 114 108 105
1.76289 4.02284 7.69524 98 104 95
1.88287 2.4838 7.70105 114 121 101
0.436117 1.73251 7.78298 109 113 105
0.23372 1.85562 7.84505 170 139 128
0.23372 1.85562 7.84505 170 139 128
0.47341 2.43928 7.91577 199 190 184
0.47341 2.43928 7.91577 199 190 184
-0.810959 4.85648 7.8643 122 117 113
-0.477774 1.68805 7.61098 104 107 101
0.558232 1.95839 7.90334 250 222 208
0.558232 1.95839 7.90334 250 222 208
1.81057 2.09556 7.82435 146 153 136
-0.526647 1.8345 7.64567 109 117 101
-0.041678 1.75452 7.74937 125 111 115
1.24334 4.73312 7.67315 137 123 109
-0.454067 2.23361 7.86317 111 118 107
-1.38771 3.45521 7.05938 112 117 105
-0.405017 2.06786 7.8004 213 186 169
1.62042 4.46877 7.57238 68 78 80
-0.245617 1.90566 7.79078 175 156 144
1.88715 2.51655 7.6973 113 115 100
-0.174817 1.91474 7.79093 103 112 102
-0.279628 1.68895 7.67874 109 113 102
-0.0620719 2.16677 7.91322 251 212 188
-0.556122 1.32041 7.46831 111 115 99
-0.432402 2.01035 7.77689 108 116 105
0.382633 1.73663 7.75864 140 126 117
0.382537 1.73659 7.75911 140 127 118
-0.709632 4.18298 7.91114 137 123 121
-0.598867 4.62311 8.01046 135 136 127
0.810352 3.22743 7.8909 147 140 128
-0.389754 2.06072 7.8188 194 171 160
-0.389754 2.06072 7.8188 194 171 160
-1.11937 3.16228 7.18133 159 133 126
-1.41092 3.5978 7.14157 187 166 158
0.637097 1.96334 7.90557 207 199 195
-1.52512 1.58431 6.67709 123 114 104
0.18057 1.89911 7.83356 117 120 108
0.320235 1.58532 7.69388 162 124 117
1.81049 3.2504 7.66203 114 108 102
-1.07514 1.39369 7.05784 166 143 131
1.85051 1.70276 7.60067 120 129 107
1.85051 1.70276 7.60067 120 129 107
1.00685 4.52941 7.81827 141 134 122
0.304235 1.23463 7.62937 165 129 117
1.23559 3.92534 7.83512 90 93 90
1.48952 3.6942 7.79573 81 90 89
-1.54805 3.58281 7.05477 199 175 165
0.486376 3.20568 7.95242 127 130 127
1.56806 4.07184 7.74255 83 93 91
-0.152879 1.27799 7.52891 142 119 111
-0.982519 1.46235 7.14827 143 139 123
-0.982519 1.46235 7.14827 143 139 123
0.868908 4.76795 7.84408 130 136 108
-0.558926 1.67101 7.5745 102 109 101
-0.558982 1.67093 7.57517 105 113 105
-0.376304 2.11975 7.84454 192 166 153
-0.614932 1.50855 7.50768 102 106 100
-0.793025 2.02305 7.49166 223 184 162
-1.1354 1.55706 7.04454 196 174 163
-1.13534 1.55711 7.04413 195 173 162
0.599091 1.71939 7.88478 200 182 172
1.41296 4.05174 7.76946 87 97 94
-0.8253 2.01522 7.36503 138 118 111
2.07008 2.03803 7.84992 71 81 86
-0.714927 4.16518 7.90927 161 159 142
-0.501771 1.80272 7.646 127 124 114
0.899118 3.3489 7.8665 106 111 104
-1.17184 2.06704 6.97903 153 139 124
-1.17184 2.06704 6.97903 153 139 124
-1.31329 2.28228 6.85232 115 119 104
0.22902 4.78417 8.0204 157 156 150
1.45453 2.73373 7.79051 96 105 99
1.81943 3.54342 7.71729 69 80 83
1.37861 4.10265 7.77003 77 87 88
-1.79326 1.59666 6.47805 142 120 114
-1.39981 3.35805 7.00668 128 130 111
0.444431 1.703 7.77962 121 125 120
-0.0373922 2.28661 7.91273 211 196 191
-1.28135 3.0318 7.03261 150 134 127
0.400523 1.91167 7.83819 161 128 120
-1.10203 3.22389 7.21558 208 181 166
-1.4824 1.62832 6.68686 156 142 129
0.676304 4.01336 7.99107 102 101 107
-0.652831 1.60047 7.50835 143 124 116
-0.502647 1.59351 7.58468 159 129 120
-0.692577 2.90205 7.6553 140 129 124
1.00224 3.03786 7.8678 122 135 113
-0.834622 4.38207 7.81543 130 115 115
0.76317 2.68013 7.94308 222 214 212
0.563774 1.81441 7.86392 107 116 107
-0.00756248 1.59743 7.67208 105 107 107
0.862626 5.03786 7.85487 72 82 89
-0.42886 1.61335 7.59049 133 124 115
-0.467443 1.47317 7.53746 167 139 127
0.986323 4.86348 7.80293 162 142 140
1.43054 2.44896 7.91315 109 115 115
0.0269592 1.48303 7.66753 98 99 100
-0.639809 1.52767 7.49673 127 122 112
-0.0292798 1.79375 7.7138 108 116 110
0.134907 1.46417 7.61158 125 134 112
0.308733 1.94907 7.89654 223 196 177
1.95166 4.08093 7.68664 100 113 96
-0.425375 1.66546 7.60698 140 128 116
-0.425393 1.66529 7.60808 143 130 118
0.0930065 1.80572 7.73209 237 219 207
-0.725594 2.47699 7.73201 144 119 114
-1.05892 4.58036 7.5463 158 152 132
-1.05892 4.58036 7.5463 158 152 132
1.32888 3.26076 7.83929 99 103 98
-0.888609 4.8098 7.70856 121 126 118
-1.28958 1.56306 6.89711 190 168 156
1.49447 4.41304 7.61831 72 82 81
1.76331 3.26721 7.68946 86 90 91
-0.790507 1.87663 7.49665 130 112 110
-0.790507 1.87663 7.49665 130 112 110
-1.19379 1.54519 6.99578 132 112 107
-0.796814 2.17661 7.57702 125 119 109
-0.899514 1.73732 7.23331 144 155 116
-0.271698 1.97102 7.78825 170 156 144
-0.914769 4.5426 7.6669 143 145 131
-0.718575 2.54099 7.74476 158 136 132
-0.886791 2.32656 7.27908 116 115 109
-0.0384084 1.89043 7.77861 160 127 120
-0.69261 1.57823 7.48097 143 118 113
-0.69261 1.57823 7.48097 143 118 113
-0.794223 4.57899 7.8088 157 154 140
0.853436 3.83579 7.90644 92 96 96
-0.657054 1.4198 7.48332 137 107 106
0.0333332 1.8795 7.77981 140 110 109
1.63194 3.40552 7.74616 74 85 85
0.479221 3.61865 7.99398 90 97 99
0.160531 1.71339 7.76326 159 126 121
0.161034 1.7139 7.76067 156 123 117
-0.525822 1.93601 7.68014 111 112 103
-1.5506 3.67688 6.98685 149 145 131
0.535927 1.5199 7.8324 211 183 163
0.535927 1.5199 7.8324 211 183 163
1.29233 3.8553 7.8292 124 120 110
-0.621596 2.82626 7.92712 157 137 130
-0.825113 4.93995 7.85547 132 115 116
-0.803905 3.81464 7.70522 138 127 124
-1.2093 4.30265 7.44657 140 129 123
-1.2093 4.30265 7.44657 140 129 123
0.0388569 2.1471 7.90771 144 132 126
-0.559047 1.69652 7.59136 117 118 107
1.25211 4.4303 7.70534 132 122 107
1.25211 4.4303 7.70534 132 122 107
1.89841 4.12549 7.65905 59 67 76
-0.70044 1.69476 7.52584 180 148 134
1.24071 4.3041 7.71424 79 88 87
-0.358121 1.37016 7.5418 118 116 108
1.61514 2.31662 7.87686 87 96 102
1.76815 2.53545 7.75023 128 121 108
1.76782 2.53546 7.75079 125 119 107
1.8207 1.12456 7.79434 153 138 135
0.270291 2.46891 7.91451 221 203 198
0.579986 1.96144 7.89774 214 195 187
-0.612165 1.90851 7.63129 140 139 119
-1.04571 1.49471 7.10208 148 138 123
1.83872 1.48604 7.53151 121 126 111
0.0275166 2.75713 7.92565 221 203 196
-0.517396 2.29005 7.84575 111 118 106
-1.19546 4.23473 7.44017 175 152 143
1.42121 2.44371 7.95251 222 218 215
1.74259 2.55633 7.75066 118 112 103
0.127264 1.84402 7.79809 178 145 133
0.226372 1.80591 7.83152 155 129 125
-0.62258 1.52442 7.51101 162 150 138
0.0112206 1.65164 7.72077 165 136 130
0.294349 1.1714 7.62563 150 119 112
-1.3487 1.79297 6.75128 144 153 125
-0.675778 2.16859 7.70298 123 119 114
-0.757404 4.00934 7.7741 136 123 121
0.243158 1.89466 7.86241 113 114 107
1.69877 3.50769 7.72635 66 75 81
1.69775 3.50738 7.71799 67 80 85
0.13923 1.66478 7.7431 168 151 144
-0.447835 1.73889 7.62684 103 107 102
-0.49764 1.75004 7.62928 144 149 135
-0.786758 4.21401 7.79798 161 159 144
0.653545 3.95127 7.9872 128 126 126
0.0392712 2.2284 7.91172 179 166 164
-0.784262 4.30997 7.89237 178 157 145
-0.764938 2.39243 7.64139 142 120 117
0.0930222 1.51363 7.67946 184 152 141
0.147933 1.59441 7.72048 148 137 127
1.9106 3.08805 7.59362 73 86 87
-1.8058 1.67262 6.43095 106 107 94
1.35222 2.46286 7.94337 151 150 148
-0.199527 1.47904 7.61384 110 114 107
0.145075 1.71979 7.76003 191 152 140
1.47246 3.44741 7.81615 101 108 95
1.47246 3.44741 7.81615 101 108 95
0.114885 1.54633 7.6841 163 129 126
-1.11932 4.41276 7.5529 151 133 129
1.71904 2.19412 7.79299 138 148 127
-0.473849 2.26822 7.85965 109 117 106
1.48808 3.50243 7.81738 137 129 116
1.48808 3.50243 7.81738 137 129 116
-1.12201 1.54768 7.06032 127 114 107
-0.45436 1.43034 7.52845 178 152 135
-0.660692 1.64716 7.52484 114 113 105
1.95211 3.10589 7.57598 75 86 87
0.292639 1.93621 7.90074 110 119 107
-0.0343664 2.24329 7.91333 235 201 184
1.41441 4.66648 7.58691 93 104 95
1.65215 3.38529 7.72607 83 94 90
-0.646475 1.64086 7.53334 190 164 151
1.25114 2.86729 7.82415 97 106 101
1.25114 2.86729 7.82415 97 106 101
-1.04545 4.55188 7.58446 138 137 122
-1.25335 3.39627 7.16531 132 126 114
-0.679812 4.47773 7.9676 117 114 114
1.28735 3.06639 7.81144 73 84 87
1.52341 3.51104 7.80117 88 96 91
-1.35875 3.27123 7.01915 128 130 117
-1.35875 3.27123 7.01915 128 130 117
0.172776 2.15881 7.91709 191 174 174
-0.0311912 1.48815 7.65128 136 123 114
0.495436 4.74773 7.96829 133 150 121
0.493364 2.34332 7.90922 202 189 184
-0.56534 2.34845 7.83963 147 139 129
-0.698501 2.67728 7.8129 157 130 124
0.275839 1.87999 7.86513 136 126 118
0.0844004 1.84221 7.79216 149 123 123
-0.509144 2.32538 7.85848 195 173 161
-0.509144 2.32538 7.85848 195 173 161
0.15407 2.38067 7.91231 180 172 172
1.46695 2.7889 7.74349 113 126 105
1.97746 2.68315 7.59028 106 111 102
0.385159 2.23074 7.91808 232 205 194
0.984419 4.03413 7.88925 122 131 109
1.52065 3.90611 7.76115 104 116 98
0.948357 3.81005 7.84744 109 118 110
-0.124041 1.47703 7.63763 112 118 110
0.777781 4.98979 7.92005 133 125 119
0.558119 3.98691 7.989 109 113 110
-1.2816 3.61608 7.24487 177 153 145
0.124536 1.7547 7.73723 249 227 210
-0.50022 1.66685 7.60305 131 118 110
0.617905 3.3084 7.93245 95 100 97
-0.142881 2.05694 7.83379 120 121 112
1.80673 3.99722 7.69576 102 116 96
1.80673 3.99722 7.69576 102 116 96
0.854578 3.44442 7.86726 164 151 148
-0.675926 4.24766 8.00747 138 139 128
-0.648961 1.4427 7.48993 178 148 134
-0.0846703 1.43265 7.6261 105 110 106
0.286699 4.88141 8.0223 115 123 114
0.286699 4.88141 8.0223 115 123 114
0.149517 1.39328 7.53433 135 146 117
-0.408607 1.99943 7.77636 109 118 105
0.391086 1.7691 7.77407 148 125 120
0.39155 1.76637 7.78644 150 127 123
-0.528605 1.47645 7.52784 155 141 127
-1.63056 2.0075 6.55434 144 136 123
0.184395 1.328 7.53783 116 118 109
-1.18774 1.55905 7.00339 196 176 164
-1.18774 1.55905 7.00339 196 176 164
-0.667683 2.3417 7.76503 135 117 115
0.657133 1.89775 7.91275 201 196 194
-1.03795 3.64213 7.50908 174 146 137
0.195616 1.28869 7.53608 154 129 118
0.389194 3.42116 7.97124 161 159 158
-0.799515 4.66769 7.79157 122 125 120
0.511059 5.09199 8.03022 118 124 120
0.511059 5.09199 8.03022 118 124 120
0.543696 1.84656 7.86352 117 122 112
0.486432 1.83241 7.83743 116 114 112
0.173503 1.48955 7.61466 128 136 120
0.503253 4.22504 7.99228 126 129 124
1.20692 4.29416 7.72322 81 91 88
-0.45697 2.27994 7.87643 107 111 108
0.0150246 1.62185 7.69696 100 99 102
-0.922621 4.01948 7.57182 147 149 136
0.0773746 2.33444 7.9229 204 192 188
0.557921 4.84205 7.97694 146 132 124
0.530099 1.9281 7.87143 155 144 129
1.96186 3.38912 7.58274 78 86 84
-0.405752 1.96483 7.76087 138 130 117
1.96541 3.4421 7.59238 144 127 118
-0.715875 4.3071 7.97414 184 163 154
-0.785123 1.8616 7.49009 168 138 129
-1.43264 3.4558 7.02542 122 125 114
1.1532 2.95412 7.86355 117 120 112
0.698737 3.00247 7.96885 163 159 154
-0.384844 2.38052 7.92734 103 110 103
1.03153 3.78112 7.88633 131 138 117
0.264335 2.29483 7.92058 184 165 153
-0.652205 2.52645 7.82917 160 138 132
-0.628813 2.75523 7.90544 164 142 137
1.56849 3.36847 7.75777 123 135 114
1.68264 3.20268 7.67286 83 92 92
1.68274 3.09901 7.69619 92 107 96
1.34082 2.35101 7.93452 207 198 197
3.57695 2.2812 7.13497 96 97 91
1.30721 3.26782 7.83666 144 136 137
0.551058 2.91854 7.94857 141 147 142
1.49892 2.3086 7.91414 192 186 184
1.24245 2.56469 7.9322 160 155 155
1.32929 2.50768 7.92878 155 151 150
1.70353 3.36831 7.72038 80 91 89
0.76245 2.84773 7.94388 170 166 162
0.813172 2.90531 7.95628 101 110 105
0.133347 2.15103 7.90504 184 169 168
0.920101 3.07022 7.89059 88 94 96
1.48214 2.23605 7.91244 116 122 111
0.328303 2.14737 7.90951 223 201 191
1.39472 2.4486 7.92099 99 107 105
1.5353 2.35222 7.88766 130 140 120
1.29469 3.44497 7.83974 148 134 122
0.771785 2.70104 7.93817 113 118 117
-0.256375 2.34652 7.9213 105 112 105
1.48032 2.29443 7.9152 113 118 114
1.27213 2.50559 7.91223 211 195 191
0.146679 2.62364 7.91106 223 185 165
1.75089 3.25349 7.68248 115 115 107
1.17796 2.9981 7.84025 134 135 121
0.17672 2.5616 7.91259 228 186 168
0.0197888 2.22944 7.90715 225 207 199
1.64199 3.08413 7.69915 96 107 97
1.38395 3.49183 7.83123 97 106 99
0.678672 3.52123 7.91722 99 104 101
-0.0964613 2.17248 7.90774 246 213 192
1.16853 3.2412 7.88128 95 101 101
-0.283669 1.93571 7.78529 178 162 147
0.633799 1.59191 7.88082 148 123 118
0.473761 2.31245 7.91796 178 165 156
0.47777 1.59561 7.79544 190 150 132
0.19571 2.05568 7.89555 248 218 197
0.283966 2.48054 7.91427 209 195 189
-0.556944 2.41541 7.87377 130 130 122
0.325361 2.04593 7.90436 221 188 176
0.325361 2.04593 7.90436 221 188 176
0.0401955 1.84586 7.7785 129 112 112
0.0377874 2.32737 7.915 201 184 181
1.99029 1.46411 7.45644 72 82 87
0.336632 4.19622 7.98364 158 154 149
0.617062 1.80145 7.88788 212 196 188
1.7852 1.96057 7.89769 92 101 99
1.40466 2.7456 7.79918 85 93 92
1.73647 2.52412 7.76662 124 115 107
-0.425042 1.7714 7.6456 143 143 124
0.255942 2.10674 7.9073 245 208 186
-0.699265 1.83077 7.5781 195 163 148
-0.879564 2.53012 7.32738 116 120 109
0.4147 2.20144 7.92817 220 196 187
0.158943 1.77443 7.7854 188 166 162
-0.954699 1.4105 7.17186 137 141 119
0.418914 1.74585 7.78637 162 131 121
1.95802 3.23794 7.56987 111 121 100
1.85699 3.10023 7.63 75 89 88
0.262085 2.28187 7.91487 186 166 157
-0.254711 1.86864 7.77754 148 129 122
1.56052 3.3352 7.75968 90 98 94
-0.668628 1.85083 7.59588 219 183 163
-0.897328 2.14164 7.31802 143 130 122
0.534895 2.13069 7.91691 184 167 159
0.642715 1.76803 7.88209 196 185 179
-0.0786586 1.21487 7.46626 155 120 112
-0.36101 1.32142 7.5277 100 108 99
0.630302 1.49986 7.87969 143 142 138
-0.651466 1.76894 7.57451 129 114 114
-1.76805 1.6979 6.4656 94 101 92
-0.722523 2.02234 7.58405 170 140 132
1.93379 2.67873 7.59421 114 119 104
1.21267 2.94329 7.83398 91 102 96
1.91127 2.23542 7.71738 126 133 115
-1.28875 2.10744 6.85132 117 121 105
1.69892 2.0795 7.90582 221 209 207
-0.614512 1.85067 7.62032 192 163 145
-0.68202 2.67334 7.82838 178 152 140
-0.510541 2.38948 7.87504 210 186 173
-0.644061 2.82266 7.92872 128 121 115
-0.599468 3.15137 7.94912 143 131 132
-0.527512 1.3629 7.47392 118 113 106
1.23727 3.09098 7.85091 82 89 92
0.445638 2.08704 7.90648 225 195 183
1.66393 2.93254 7.6932 84 90 89
0.247787 4.21688 8.14281 157 153 150
0.519333 1.7521 7.83999 123 125 113
0.0388569 2.1471 7.90771 144 132 126
0.378141 1.75456 7.76716 101 105 102
-1.58369 1.57201 6.63885 204 184 173
0.132098 1.29678 7.49811 106 109 102
-0.285593 1.85403 7.74229 107 106 101
-0.611963 1.90886 7.62934 149 148 128
0.38837 1.87833 7.82075 168 133 120
1.52689 2.52002 7.86044 95 106 99
-0.149084 2.25851 7.91193 119 122 117
-0.621916 1.59006 7.51543 139 133 123
-0.621916 1.59006 7.51543 139 133 123
0.693585 4.31228 7.89096 132 114 106
0.602722 1.85969 7.88751 109 106 103
-0.268379 1.54021 7.62004 110 111 105
-0.336773 1.9625 7.78046 140 114 112
0.418239 1.72486 7.77729 156 131 125
0.244726 1.51143 7.61214 160 139 125
0.631999 1.86708 7.89708 134 132 128
-0.135666 1.45578 7.6205 109 112 101
0.379888 2.04063 7.90544 204 188 186
0.484946 1.7614 7.82751 155 143 133
-1.15845 2.22 6.97716 140 141 125
0.377265 2.36753 7.91171 182 173 165
-0.866775 1.34087 7.27837 160 139 120
0.396251 1.76233 7.86243 144 118 113
-1.00603 3.47499 7.49276 125 129 113
1.67612 1.98588 7.96488 218 206 206
1.67612 1.98588 7.96488 218 206 206
0.291251 1.80868 7.85942 96 104 98
-0.830184 1.08883 7.27956 101 103 96
1.38301 3.25732 7.86232 86 94 90
0.589728 1.89971 7.87793 105 109 106
0.627243 1.72771 7.90004 221 204 195
-0.0239668 1.37238 7.53286 91 94 94
-0.0239668 1.37238 7.53286 91 94 94
1.81366 1.3055 7.78948 128 100 103
-0.731791 1.11462 7.29968 138 114 103
-0.695289 1.25689 7.3821 97 103 94
-0.693381 1.25898 7.36968 93 99 92
1.23004 3.18114 7.83153 226 206 194
1.23004 3.18114 7.83153 226 206 194
-0.427052 2.29369 7.90353 93 102 96
0.0966607 1.65783 7.71579 94 100 97
-0.535194 1.76928 7.60467 103 111 99
-0.878797 1.08094 7.28258 95 101 90
-0.0238933 1.10423 7.3807 115 120 104
-1.11854 3.03953 7.1815 115 110 101
-0.220936 1.86624 7.76378 93 100 94
-0.722071 0.572447 7.12327 100 109 96
-0.0486264 0.653842 7.3588 193 158 138
-0.0486264 0.653842 7.3588 193 158 138
-0.278769 2.23274 7.94274 107 116 104
1.55152 2.45587 7.84294 102 106 101
1.89571 2.0688 7.94178 88 94 100
-1.13643 0.849415 6.98968 144 110 101
-2.2251 0.844948 6.02227 87 86 87
-2.2251 0.844948 6.02227 87 86 87
-0.817242 0.583734 7.11425 119 122 103
-0.684391 1.70411 7.51883 173 146 131
-0.684391 1.70411 7.51883 173 146 131
-0.823638 3.03911 7.50359 130 110 109
-1.29813 1.66739 6.8588 126 127 107
-0.814882 1.06117 7.24771 100 107 94
-1.71154 1.20652 6.46493 99 103 94
-0.702359 1.52201 7.40372 117 109 101
-0.916996 0.930923 7.13214 86 95 87
-0.822544 3.71896 7.72468 126 120 111
-0.596686 2.05204 7.72221 125 106 106
0.608363 0.634428 7.53474 101 108 99
0.230498 2.35288 7.87172 170 158 154
-0.253597 1.01514 7.40327 150 108 101
0.483512 4.08984 8.05016 158 145 145
-0.198184 0.449869 7.21753 87 97 90
-0.193722 1.72219 7.73577 100 106 98
0.046792 1.35844 7.52597 147 114 107
0.375012 3.66018 7.9762 108 113 105
-0.259793 1.46958 7.59534 171 134 120
0.431401 0.505235 7.43207 136 113 108
-0.454712 2.37347 7.93661 117 124 106
-2.03196 0.972542 6.193 92 92 87
1.76674 2.70174 7.65564 77 88 89
-0.354048 1.11775 7.38409 131 121 108
-0.0647279 0.603754 7.34747 175 147 132
-0.0653049 0.604016 7.34693 177 148 133
-1.74848 1.11642 6.43857 117 108 101
-0.236325 0.461877 7.21372 189 147 127
-0.630067 3.20359 7.8808 187 160 147
-1.3549 1.32219 6.73908 127 130 112
-0.84263 0.755892 7.12247 99 100 92
-0.595434 0.470169 7.12768 121 130 102
-0.343058 0.41226 7.1622 90 102 92
-0.0156032 1.90801 7.78992 101 107 100
-1.0147 2.10394 7.15847 106 108 98
-0.208654 0.517463 7.23306 186 145 127
0.856799 2.81323 7.94137 102 107 103
-0.708188 0.638323 7.14107 94 105 93
-0.334525 0.382698 7.15524 156 128 114
2.03503 1.7513 7.54353 74 77 86
-0.489989 0.839353 7.25344 95 104 95
1.86744 2.26528 7.74901 89 98 95
-0.380657 1.57455 7.61072 97 104 98
-0.677484 3.67106 7.94217 214 189 175
-0.529076 0.796223 7.19946 177 144 127
-0.891542 1.49794 7.25033 150 141 125
0.0336662 0.542418 7.26701 97 106 94
-1.11007 0.543888 6.97917 96 104 91
-1.11007 0.543888 6.97917 96 104 91
-0.688162 0.596657 7.14247 96 108 96
0.397172 0.746568 7.47326 83 92 92
1.75541 2.88209 7.64961 109 110 103
1.75541 2.88209 7.64961 109 110 103
0.749545 0.702638 7.74016 104 114 107
-1.31666 0.479836 6.85392 177 151 139
0.515927 3.19623 7.95948 149 148 144
-0.550187 1.92364 7.66647 168 147 133
-1.47369 0.830968 6.71134 134 129 112
-1.47369 0.830968 6.71134 134 129 112
-2.14373 1.01056 6.07881 95 93 92
1.46065 3.21005 7.80447 117 122 102
0.622367 0.90568 7.67998 158 130 125
-1.11344 0.610178 6.9851 110 114 100
-0.420759 0.642518 7.19414 96 107 94
-0.673325 4.21253 8.01661 102 109 105
-0.909325 0.842071 7.12392 177 133 120
-0.909452 0.842204 7.1239 178 134 120
0.270215 1.66034 7.72948 96 103 95
-0.0465212 0.925085 7.38317 159 138 120
0.387241 1.8427 7.80823 178 141 129
1.03928 3.85777 7.78897 75 85 86
1.03928 3.85777 7.78897 75 85 86
-1.02475 1.08483 7.10161 130 133 111
-1.02472 1.08477 7.10162 128 132 110
0.50888 3.3727 7.95714 140 141 139
2.58522 0.501497 7.07692 117 95 90
-0.717274 1.88712 7.57612 144 117 109
-0.789391 2.49295 7.49703 164 142 135
-1.56756 0.780102 6.60832 141 136 119
-1.56507 1.10472 6.60398 170 147 138
-0.621274 0.889251 7.25874 95 102 92
0.187813 1.007 7.55147 155 132 119
-1.71314 0.808867 6.48137 112 112 100
-1.71314 0.808867 6.48137 112 112 100
-1.83061 0.596268 6.43427 180 155 146
-2.07281 0.784933 6.20036 160 136 127
-2.07208 0.785107 6.19926 163 138 129
-0.215476 2.15386 7.88753 107 109 101
1.22783 3.68477 7.84967 118 119 105
-1.94835 1.56877 6.35689 124 105 102
-1.12999 0.592302 6.96867 138 124 107
1.8303 2.66882 7.6278 70 79 84
-1.70061 1.80382 6.49128 101 105 95
-0.866192 3.95598 7.63745 146 138 128
-0.155941 1.70378 7.716 178 141 126
-0.794042 0.991079 7.23236 94 104 94
-0.413384 1.6419 7.61134 97 104 98
-0.413206 1.64169 7.61259 96 103 96
-0.690873 0.430869 7.11509 97 107 95
-1.08149 0.445228 6.98287 100 106 94
2.91041 0.507133 6.90849 64 73 75
-0.18351 0.790752 7.26855 107 112 97
-0.790209 2.41807 7.52685 178 150 138
-0.516126 2.8207 7.94063 116 120 111
-2.00205 1.33646 6.18891 128 118 108
-1.3259 0.453899 6.85487 146 125 112
-0.355706 1.53358 7.57315 158 126 115
0.241915 0.987296 7.55822 101 108 99
-0.558283 1.8805 7.63607 95 105 93
-0.558283 1.8805 7.63607 95 105 93
-1.75892 1.64453 6.48894 99 100 91
-1.46028 1.58064 6.7177 110 102 97
-1.81352 0.631013 6.44434 192 166 154
-1.81352 0.631013 6.44434 192 166 154
-0.188523 1.89685 7.7838 157 130 119
-0.504843 1.93107 7.71202 147 149 133
-0.145556 0.736454 7.27963 103 109 92
-1.8887 1.17454 6.31574 94 100 90
-0.196547 1.23982 7.49774 155 118 109
0.423523 2.13567 7.90586 171 153 144
0.329071 0.737351 7.4486 85 91 91
-1.00605 0.662699 7.05389 97 108 92
2.0454 0.648714 7.55546 115 110 106
0.599199 3.21605 7.9607 82 89 92
-0.128482 0.898884 7.31393 196 156 136
-1.24521 0.870908 6.90658 148 140 122
0.625942 1.52303 7.89278 237 223 218
-0.651985 0.963213 7.24367 96 107 95
-0.338206 0.762159 7.21867 134 118 109
-0.338877 0.761035 7.22379 139 125 111
-0.938993 3.86341 7.54274 158 139 128
-0.938993 3.86341 7.54274 158 139 128
0.701378 0.935079 7.73576 111 102 103
-1.8348 1.30425 6.34727 101 103 91
2.06191 0.782942 7.61749 93 96 96
2.06191 0.782942 7.61749 93 96 96
1.81811 2.27628 7.78508 79 88 90
-1.53331 1.3218 6.60946 93 104 92
0.153963 1.64449 7.74447 106 105 101
1.2669 2.72193 7.85144 83 89 92
-0.323148 0.603083 7.19048 122 126 104
-0.795163 1.1356 7.25227 84 89 87
2.2548 0.377233 7.25269 108 98 102
-0.946918 1.30057 7.19142 92 99 91
-1.67996 1.49373 6.52181 142 134 119
-0.412005 0.737357 7.19066 121 131 102
-1.51615 1.23938 6.59977 141 133 117
-0.092649 1.32635 7.56276 89 90 90
-0.876679 0.767543 7.11893 182 134 119
1.54662 2.86712 7.72899 71 80 82
0.174522 1.9033 7.83086 116 118 107
-1.04537 0.407865 7.00067 94 102 93
-1.04497 0.408125 6.99955 90 97 90
-1.80137 1.30288 6.37029 138 130 115
-1.8015 1.30279 6.37122 139 130 116
0.913866 3.72457 7.87762 110 117 98
0.588099 3.07291 7.97216 150 149 146
-1.3239 0.590574 6.85494 114 113 101
2.58043 0.403307 7.04276 64 71 76
-0.744983 1.72908 7.49176 106 109 96
-0.188427 0.71163 7.2794 107 113 97
-1.21455 0.465797 6.92659 158 147 130
-0.671574 0.558165 7.13955 94 104 93
-1.05135 0.440514 7.00666 95 105 93
-0.20243 0.891313 7.28493 97 108 96
-0.0173147 0.862459 7.43278 175 135 119
-1.22699 0.488925 6.92869 120 115 104
-0.958052 0.875784 7.11555 132 123 105
0.162462 1.51123 7.66966 92 98 96
1.80045 0.526748 7.81717 97 96 108
-2.57859 0.864118 5.62872 148 125 119
-0.460156 1.08886 7.35611 145 111 106
-0.882459 2.22033 7.3607 158 139 130
-0.509413 0.791635 7.23043 97 106 96
-1.0508 0.513251 7.00952 97 104 92
0.646373 1.05156 7.86211 210 180 158
0.581675 3.9705 8.01561 109 112 109
-1.01886 0.432808 7.01992 97 108 93
-0.213134 1.79649 7.73146 94 99 94
-0.214404 1.79554 7.73563 92 98 93
-1.03094 0.480003 7.01066 98 107 94
-0.755659 2.46483 7.66693 146 124 119
2.05732 0.534769 7.50462 98 109 101
0.713092 0.908913 7.71384 148 137 128
-0.142326 1.18628 7.43845 101 103 96
1.69217 1.86587 7.86336 117 119 118
0.183785 0.609828 7.32622 118 117 102
0.063996 0.600723 7.29005 134 131 113
0.757769 2.84924 7.94166 165 161 158
-0.72036 1.16793 7.34736 102 106 96
1.84739 2.1396 7.81204 72 82 89
0.0226669 0.786452 7.43716 92 98 91
-2.0683 1.11224 6.14439 155 131 123
0.722416 4.1649 7.84776 98 110 95
-1.66792 1.18336 6.48694 141 137 119
-1.89086 1.19875 6.30062 136 131 116
0.0648747 0.793003 7.45516 99 108 97
-1.6727 1.11246 6.50382 146 130 119
-0.404625 2.20039 7.86084 105 112 100
-0.450152 1.88895 7.72102 100 104 98
-0.937045 0.998099 7.15418 91 94 90
-0.486798 1.09891 7.37284 94 96 93
-0.486798 1.09891 7.37284 94 96 93
1.2127 2.62601 7.94321 87 91 97
-0.357795 0.906051 7.28849 98 105 95
-0.0303557 1.33168 7.47739 136 141 121
-1.50967 1.49482 6.6603 100 102 94
-1.00929 0.750535 7.06488 104 109 95
-0.0446057 0.591027 7.3052 89 99 91
-1.42502 1.30453 6.66733 135 135 116
-0.034232 1.11961 7.37481 101 107 95
-1.03861 0.73532 7.04782 99 107 93
2.29481 0.950607 7.39055 150 126 122
-1.67543 0.867277 6.49186 156 135 123
-0.376317 0.595959 7.1873 96 109 93
2.11733 0.474192 7.44038 75 81 87
1.50094 2.80663 7.72147 69 80 85
-1.79233 1.55852 6.48209 138 115 109
-1.13661 0.496231 6.96194 95 102 91
-1.13679 0.496071 6.9628 98 106 94
-0.253404 0.91418 7.29252 121 125 101
-1.61565 1.34015 6.53664 117 118 100
-0.827742 0.67468 7.11116 180 134 120
2.04666 1.1644 7.34767 117 111 105
-1.74896 1.17519 6.4263 94 99 90
-1.74896 1.17519 6.4263 94 99 90
-0.438517 0.832655 7.24573 147 119 108
-0.389867 0.805341 7.24013 148 116 106
-1.67222 0.840688 6.4883 93 98 86
2.06554 0.740846 7.59006 158 143 136
2.06554 0.740846 7.59006 158 143 136
1.28722 2.88444 7.7968 75 85 86
-0.252535 0.482705 7.19925 99 103 92
-2.0393 1.59614 6.2901 165 137 127
-1.14276 0.566095 6.96484 106 110 96
1.78642 2.67157 7.65185 120 122 111
1.78844 2.67173 7.65933 119 120 109
-0.975324 3.67102 7.52398 137 113 109
-1.83065 0.638301 6.43259 141 120 110
-0.897006 2.91472 7.3966 106 108 100
-0.418792 1.20606 7.45442 144 108 102
-0.512134 1.57649 7.58172 102 108 98
2.029 0.815317 7.62106 90 91 94
-0.932299 1.62469 7.2211 142 138 119
-1.24752 3.04806 7.07536 181 154 140
-1.08348 0.544339 6.99199 99 105 94
-2.05769 1.10234 6.15684 122 105 98
-1.81082 0.690442 6.43929 133 119 108
-1.8139 1.00938 6.37868 121 115 103
-1.8139 1.00938 6.37868 121 115 103
0.0797116 0.873178 7.48398 162 138 129
-0.375591 1.51723 7.58028 93 100 94
-1.62871 0.661092 6.58091 121 113 102
0.662603 3.13613 7.94105 167 150 136
-1.30281 0.597822 6.86076 156 139 122
0.607635 1.50604 7.86568 227 220 216
2.01536 1.40428 7.41693 78 87 89
0.217269 0.429147 7.29873 136 122 107
-0.714288 1.07686 7.29904 132 115 103
-1.41655 1.2261 6.6939 132 134 116
-0.133024 0.945962 7.32639 104 105 99
-0.0518984 0.814511 7.39248 153 132 114
-0.550969 0.922416 7.2673 96 106 93
-0.657198 0.577498 7.14389 149 135 114
-1.90756 1.21033 6.28873 88 92 86
1.95439 0.783562 7.72543 94 95 99
-0.306274 1.90639 7.75486 168 144 136
-0.948508 0.533644 7.05663 100 109 95
-0.948508 0.533644 7.05663 100 109 95
0.18699 1.71748 7.77233 186 159 149
-0.414782 0.823676 7.24041 142 111 104
-0.773094 0.827032 7.16984 91 103 92
-0.055613 1.74422 7.72179 162 132 123
-0.423693 0.897502 7.27733 95 104 92
-0.0733446 0.421251 7.20925 124 133 107
0.292277 1.04128 7.566 97 105 98
-1.6343 1.4315 6.5391 135 131 113
2.0465 0.727011 7.60498 90 93 92
-1.49627 1.66852 6.6839 153 135 120
-0.097307 1.20101 7.46401 102 107 98
0.890613 3.18803 7.88232 146 131 119
0.807913 0.543812 7.62836 133 143 115
0.807165 0.544239 7.62665 136 145 115
0.629792 3.17304 7.96655 114 118 105
-1.96349 1.38663 6.23861 92 94 87
0.76589 3.99567 7.90146 103 113 99
-0.422316 0.845558 7.24772 99 106 96
0.0432002 0.614347 7.27918 89 97 91
0.641875 0.853164 7.65007 98 100 101
-0.922665 0.577553 7.07401 104 113 95
-0.200937 0.393809 7.22136 128 106 101
-1.78704 1.31766 6.38445 91 96 89
2.01658 0.79487 7.64368 134 120 119
-0.897212 0.989586 7.17245 146 128 114
1.91397 0.808597 7.7498 161 144 139
0.294649 2.20772 7.89249 176 165 163
0.752851 4.15553 7.83195 74 84 85
0.869327 3.9871 7.89068 105 112 98
-0.0083442 0.717437 7.40312 147 120 111
0.760226 2.82198 7.93742 110 116 110
2.28606 0.925883 7.41097 76 78 83
-0.731523 3.69588 7.83432 143 123 119
0.340168 0.988867 7.57723 102 107 99
-0.441992 0.895827 7.25504 166 130 117
-0.505243 0.934977 7.27181 162 142 124
0.654455 3.06175 7.95824 105 116 110
-0.798315 1.31391 7.32533 136 138 113
-0.406873 0.947501 7.29031 100 109 96
-0.406873 0.947501 7.29031 100 109 96
1.4441 2.83759 7.71742 77 86 89
-0.791215 2.30545 7.57834 200 158 139
0.319765 0.357688 7.38401 147 114 105
-1.2581 0.570225 6.91033 115 112 101
-0.192435 1.0912 7.41051 103 109 99
-0.193115 1.09158 7.4088 103 109 100
-1.07995 0.484006 6.98944 100 109 95
-1.81948 1.4473 6.40152 109 112 92
-1.81948 1.4473 6.40152 109 112 92
0.532443 4.25439 7.97661 74 80 86
-1.68055 1.21744 6.47598 103 106 96
0.490833 1.51371 7.80168 193 164 142
1.97529 0.764586 7.70281 93 96 99
-0.0312179 0.571419 7.30318 120 127 103
-1.18722 0.692905 6.96995 100 105 96
-0.205956 1.20202 7.45359 94 100 92
-0.371732 0.814266 7.24486 100 109 96
2.48175 0.759396 7.10875 99 108 94
-0.495341 0.95327 7.27773 101 109 98
-0.495341 0.95327 7.27773 101 109 98
-0.821554 1.13844 7.28068 145 119 110
0.448172 3.56377 7.99207 136 134 135
0.583208 1.74301 7.90896 140 139 125
0.458147 0.669136 7.4475 97 103 101
-0.564373 1.62069 7.54394 118 113 106
-1.96735 1.34875 6.22542 136 127 115
3.27571 0.784873 6.84955 58 67 70
-0.864748 0.557252 7.06228 99 108 90
2.9895 0.957634 6.96857 56 69 71
-0.872369 0.375809 7.06861 147 133 117
-0.23284 0.94896 7.30382 118 126 101
-0.942176 0.834786 7.10929 107 117 97
-0.940867 0.834361 7.11137 102 108 91
0.620436 3.90239 7.98955 177 160 152
-0.84466 3.97463 7.62747 97 98 99
-0.296946 0.331021 7.18198 180 140 124
-1.45541 1.34216 6.65563 143 130 118
-1.04496 0.627089 7.02617 151 134 115
1.23439 2.87696 7.81566 118 122 107
1.93626 0.831782 7.70689 85 88 95
-1.91975 1.19698 6.27682 137 128 114
-0.487511 0.353161 7.11541 129 128 104
-0.487511 0.353161 7.11541 129 128 104
-0.487584 0.352952 7.11637 126 126 102
0.259077 1.25154 7.59854 174 143 127
-0.471358 0.61408 7.17421 127 123 108
0.587886 1.5611 7.84351 112 112 105
0.281038 0.713077 7.43338 139 123 110
0.280863 0.713237 7.43245 138 121 109
-0.770295 0.998411 7.24609 148 130 115
-0.771 0.997573 7.25058 143 124 110
1.68626 3.28137 7.72524 102 114 96
0.321905 1.18413 7.64637 163 125 114
-0.0904785 0.97053 7.34041 125 134 105
1.7889 2.55209 7.72483 116 117 102
-0.20234 0.49564 7.21989 104 112 93
-1.61015 1.49586 6.57449 143 138 121
-0.547036 0.865214 7.23186 111 117 98
-1.03271 0.940261 7.08169 153 135 118
-0.896909 0.765496 7.11576 105 109 94
-1.51054 1.27219 6.60736 139 121 109
-0.601554 0.363249 7.10941 159 129 114
-0.0898158 0.743208 7.35222 147 129 111
-1.24022 0.674002 6.93503 180 136 120
0.770113 2.90821 7.9589 101 109 103
1.99579 0.798798 7.68425 87 89 94
1.76986 1.76599 7.71386 92 92 102
-1.13758 3.62364 7.33135 125 119 114
2.0072 2.5917 7.59094 110 112 101
-0.318926 0.825424 7.25753 104 107 97
-0.920248 1.83816 7.23812 104 111 96
-0.921565 1.83774 7.24308 99 107 93
2.26427 0.91152 7.42372 82 82 86
-1.04964 3.6401 7.483 244 224 208
-0.498704 0.881162 7.24161 179 142 128
-1.34162 1.05548 6.78401 147 137 121
0.259945 0.710178 7.42604 96 101 95
2.6684 1.23723 7.13552 68 78 79
0.103223 0.949038 7.49918 92 101 94
-1.20218 1.5707 6.99214 132 112 106
1.0578 2.83751 7.89727 115 112 105
0.110706 1.49876 7.66146 95 90 95
-0.693373 0.617957 7.13883 148 120 107
-0.692768 0.618398 7.13686 149 121 107
-1.68177 1.0447 6.51082 180 159 148
1.34119 2.57518 7.86847 85 92 96
-0.766595 2.55338 7.51812 122 120 112
-1.13189 0.546469 6.96257 143 132 109
-1.17116 0.637929 6.95328 107 111 95
-1.17084 0.638177 6.95189 105 109 93
0.147545 0.761436 7.36009 137 149 107
-1.00983 0.709002 7.05732 103 107 95
-1.39563 0.978489 6.75945 104 106 96
-0.72348 2.60833 7.72729 160 132 124
-1.29861 0.486565 6.86535 115 116 99
-1.23263 0.440662 6.92278 112 114 100
1.29037 3.22098 7.82871 133 112 112
-0.531105 0.816248 7.21726 92 100 91
-0.0818812 0.554983 7.32143 156 130 124
-0.749765 0.620798 7.12117 148 126 112
-0.999484 0.427577 7.0196 174 136 120
-0.480906 1.03183 7.31099 176 143 130
0.731877 0.899672 7.70984 99 103 103
-1.00974 1.56506 7.16358 187 166 157
-1.34522 2.19975 6.80898 119 109 101
-1.34797 2.19931 6.81975 126 112 104
-0.690915 1.10508 7.31269 100 102 93
-1.63347 0.558128 6.5998 117 110 101
3.64869 1.78599 7.10308 42 54 64
-0.85115 1.55506 7.34058 177 153 141
0.106113 0.874015 7.45929 78 86 88
-1.37105 1.01707 6.76267 109 110 98
0.490557 0.388404 7.42221 120 127 109
-0.392114 0.893931 7.27032 100 106 96
0.204859 1.18337 7.53593 109 117 99
-0.997768 3.40104 7.38637 139 133 122
-0.281169 0.386515 7.18917 179 137 119
-0.942198 0.383028 7.04688 103 111 96
-0.942194 0.383108 7.04687 103 111 95
0.577873 0.629639 7.50929 129 140 113
-0.271196 0.84665 7.26198 100 108 97
-1.68575 0.994318 6.5074 155 140 127
2.4184 0.641581 7.18961 91 102 92
-0.278749 0.472557 7.18054 91 97 90
-0.278749 0.472557 7.18054 91 97 90
1.61024 2.24636 7.8699 80 91 97
0.0254022 1.42444 7.61156 160 123 114
-0.0932044 0.593659 7.31011 91 99 91
-0.783573 2.68426 7.49094 153 141 133
-0.891116 0.79789 7.126 176 132 117
-0.284428 0.456211 7.18026 108 112 98
-0.284428 0.456211 7.18026 108 112 98
0.131524 1.04796 7.48211 92 101 95
0.259119 1.10358 7.59623 92 95 94
0.315254 1.09686 7.61494 94 101 94
-0.159831 0.649538 7.26653 104 109 96
-0.240667 1.76934 7.73629 108 111 102
-1.70896 0.774637 6.48035 187 166 156
-1.52685 1.64921 6.67021 121 123 102
-1.40764 1.19595 6.70017 146 141 124
-0.0691124 0.545184 7.29483 78 84 85
2.04792 0.763948 7.60923 144 129 123
2.04792 0.763948 7.60923 144 129 123
0.0310578 0.420658 7.20068 100 108 93
-0.519024 0.967707 7.27636 100 109 98
0.0234405 0.760927 7.4243 148 125 115
-0.0583549 1.08886 7.35313 107 111 100
-0.482078 0.921987 7.27056 98 107 95
-1.0159 1.23803 7.10902 106 113 98
-1.01559 1.23815 7.10871 104 112 98
-1.12255 0.423319 6.95178 161 139 132
-0.181009 0.861138 7.28104 105 114 98
1.93593 2.00328 7.90401 207 200 200
-0.895774 2.17303 7.32857 156 137 129
-0.465126 2.39225 7.89856 134 128 117
2.42733 0.67226 7.16676 64 74 78
1.76529 2.17947 7.79132 134 145 122
-1.05652 0.822709 7.04893 154 133 114
-0.803187 3.78645 7.70244 119 111 109
0.291661 0.442109 7.32961 87 91 92
-0.0811844 0.35257 7.18928 95 104 93
-0.20561 1.917 7.78963 101 108 99
-0.381348 0.977821 7.30552 96 106 96
1.88905 2.61465 7.65046 66 79 82
0.303864 1.07965 7.60063 151 126 116
0.303731 1.07944 7.60202 151 126 117
-1.40494 0.923495 6.76544 100 105 90
2.71124 0.939474 7.08325 62 71 74
-0.114514 1.17206 7.42427 95 98 92
0.876304 3.68738 7.87029 73 81 83
-0.824566 0.831545 7.1559 97 106 94
1.5636 2.74809 7.71935 71 82 85
0.308794 1.53114 7.67016 159 121 113
-0.67957 1.13536 7.33446 98 104 93
2.01514 2.20708 7.73395 87 94 93
-0.808866 1.97232 7.45836 128 116 109
-0.745182 0.56971 7.11802 106 111 98
-0.166899 0.840483 7.30093 164 133 115
-1.94611 0.75995 6.31447 111 108 96
2.19818 0.88499 7.48303 171 149 141
-0.610658 0.943938 7.24564 96 103 92
-0.610658 0.943938 7.24564 96 103 92
-0.157662 0.955846 7.30307 146 120 109
-0.345989 0.745474 7.20709 122 125 111
-0.345989 0.745474 7.20709 122 125 111
-0.0793717 0.446952 7.22114 122 132 105
-1.25355 0.743585 6.91981 104 106 96
-0.970432 0.622716 7.06292 179 139 126
-0.970432 0.622716 7.06292 179 139 126
-1.14094 0.516381 6.96259 152 118 106
-1.22665 0.88123 6.91868 106 114 94
-1.78405 0.918071 6.40315 143 134 119
-1.78395 0.918069 6.40312 145 135 122
1.58498 2.85791 7.67083 76 82 85
-0.694376 1.16167 7.35131 102 107 95
-0.686011 1.86111 7.59376 158 131 117
1.85954 2.52044 7.71479 110 113 98
-1.16171 3.63714 7.32916 179 160 153
-1.16171 3.63714 7.32916 179 160 153
-1.03534 1.02752 7.09257 125 130 111
-0.29569 1.68502 7.6668 164 127 115
-1.12152 0.441177 6.9581 101 105 95
-0.767292 0.896368 7.19215 95 103 92
-1.66555 0.907 6.50765 108 110 94
1.08603 3.15174 7.85409 73 82 85
-0.74961 0.823195 7.16775 136 123 107
2.00264 1.8419 7.61754 72 82 90
-0.405262 0.992304 7.31026 96 104 95
-1.26206 0.856389 6.90096 110 110 100
2.41616 0.446297 7.09729 71 78 81
0.601793 3.65904 7.91515 112 121 104
-0.618998 1.54283 7.5132 117 117 107
-2.05338 0.796434 6.22083 102 99 92
0.925152 2.9336 7.90164 122 115 108
0.924907 2.9335 7.89977 126 118 111
-0.972797 0.373757 7.02402 125 131 102
2.05163 1.73368 7.49103 100 118 102
3.42255 0.845841 6.81637 66 74 74
-0.8048 1.00601 7.23971 144 128 112
-0.00654746 1.8045 7.7236 112 100 100
-1.68816 1.30073 6.47025 110 111 98
-0.738488 0.535035 7.1177 178 138 120
-0.738488 0.535035 7.1177 178 138 120
-0.329331 1.11874 7.39259 103 112 96
0.322932 1.04052 7.59212 100 107 99
0.322932 1.04052 7.59212 100 107 99
-1.11409 0.406697 6.97231 109 108 97
-1.97254 0.632076 6.32352 105 101 96
0.455221 0.490088 7.43349 102 101 98
-0.0418826 1.75621 7.73572 117 103 105
0.517632 3.36341 7.99872 142 142 143
-0.78846 2.33588 7.57904 116 108 105
-0.874901 0.634184 7.0947 98 109 92
-0.161068 0.93805 7.29826 103 113 96
-0.515924 0.913648 7.27027 108 113 100
-1.82508 0.687472 6.42921 175 153 139
-2.10884 0.643444 6.19422 131 108 105
0.294425 0.942353 7.54513 104 115 103
-1.74889 1.43306 6.44071 125 124 108
-1.08877 0.664716 7.00212 106 107 98
3.33813 0.503992 6.77951 56 67 69
-1.15754 0.679981 6.96988 106 112 94
-0.318914 0.873555 7.27132 101 104 95
-0.905156 0.361095 7.05485 108 118 95
-0.854271 0.938065 7.17469 100 106 95
1.88292 2.48394 7.70176 111 118 99
-0.504342 0.72246 7.19854 97 104 93
0.617663 0.521788 7.59 95 97 96
-1.09001 1.39754 7.04333 106 110 97
0.014491 0.357732 7.18725 95 103 94
-0.339563 0.353966 7.15077 170 134 119
-1.95567 1.21449 6.23683 90 94 88
0.166958 1.03263 7.53756 93 102 96
2.12411 2.14261 7.71285 74 84 86
-1.22041 2.54657 6.9703 144 140 120
2.35947 0.923542 7.28746 85 92 89
1.91072 2.14124 7.7384 118 128 111
-1.17707 0.621302 6.94744 150 126 112
1.33771 2.94955 7.76887 76 84 87
-0.323767 1.09206 7.37839 98 96 92
-0.323432 1.09196 7.37888 98 97 91
-1.76762 1.41307 6.42529 97 100 91
-0.938498 0.74503 7.09389 105 112 94
-0.287479 0.348215 7.1867 90 94 89
0.426224 1.66199 7.75855 113 118 106
-1.24548 0.758753 6.91932 145 129 115
0.682038 3.1406 7.92188 103 106 100
-0.395456 1.89791 7.72694 140 132 115
-0.572974 1.03328 7.29048 96 100 92
-1.03832 0.576639 7.02112 98 104 93
-0.362317 2.21812 7.91162 118 124 109
0.800531 3.66358 7.89741 76 82 85
-0.726027 2.74019 7.58159 131 115 109
0.512319 2.09342 7.90578 198 181 177
1.74195 2.27549 7.80936 97 106 104
-1.15591 3.16139 7.15307 149 122 117
0.541147 0.588052 7.50998 134 141 116
-0.245636 1.90564 7.79132 169 150 137
3.42827 0.955082 6.86251 62 70 71
3.12603 0.929464 6.92854 110 100 98
-0.229018 0.624622 7.21456 98 106 93
-1.76951 0.730106 6.45506 185 162 150
0.244776 1.75037 7.74484 89 89 92
-1.06873 0.517988 6.99663 144 118 106
-1.53366 1.28839 6.59658 103 107 95
-1.53366 1.28839 6.59658 103 107 95
-1.55218 1.16984 6.60218 110 113 97
1.68 3.56062 7.70667 61 72 77
1.68 3.56062 7.70667 61 72 77
-0.793102 2.02303 7.4929 222 182 160
-1.98087 1.34044 6.21873 98 100 90
-0.947805 0.618132 7.06602 103 111 95
-1.29844 0.54053 6.87701 118 115 102
2.48967 0.560794 7.11729 96 108 92
2.61498 0.409114 7.00778 58 68 73
-1.31044 2.8077 6.96811 110 112 100
1.64867 2.23804 7.8499 94 102 110
-0.851585 0.588992 7.08709 151 126 110
0.299407 0.995315 7.56222 100 104 97
0.299784 0.994952 7.56401 100 103 98
2.29996 0.35984 7.08628 79 81 85
0.535639 1.52059 7.83062 200 171 150
-1.02821 1.95715 7.08104 122 118 106
-1.02955 1.95666 7.08771 118 115 103
-1.82794 0.713806 6.42591 142 121 110
0.783027 3.65414 7.8942 117 119 104
0.783027 3.65414 7.8942 117 119 104
0.0544231 0.485923 7.23218 134 135 113
-0.982332 3.86648 7.47403 122 123 111
0.126397 0.494271 7.27348 91 97 91
-1.21072 1.33717 6.91257 106 108 95
-1.71753 1.24653 6.4417 113 107 99
-0.294595 1.60449 7.64949 168 133 119
-1.691 1.14155 6.47406 143 137 122
0.643251 0.897091 7.66888 105 105 103
-0.933449 2.28218 7.18302 123 109 100
-0.933449 2.28218 7.18302 123 109 100
-1.65797 0.92164 6.50867 162 138 124
-1.57942 1.32845 6.57465 136 130 115
-1.2761 0.470703 6.88055 146 119 109
-0.0600562 0.839498 7.38726 114 120 106
-1.02001 0.737096 7.05765 157 128 111
-1.02006 0.736976 7.05795 154 124 108
0.570011 3.96149 7.99431 99 103 101
-1.1927 0.48898 6.9326 125 120 103
0.602678 0.824729 7.6013 146 130 123
-1.03566 1.37642 7.1009 104 106 99
0.320427 1.5853 7.69371 159 121 113
-1.06776 0.401128 6.98491 107 108 97
-0.238319 0.777629 7.24268 100 105 94
-0.238498 0.777747 7.2421 101 108 96
-1.78777 0.795075 6.43975 120 114 103
-2.34817 0.971086 5.8462 145 123 118
0.801961 0.59968 7.74028 93 90 99
-1.42207 3.04962 6.91531 171 141 127
-0.979886 3.8523 7.50383 170 152 142
2.41837 0.813209 7.16847 85 72 77
0.232242 1.21466 7.56598 186 151 131
-0.886788 0.931951 7.15727 149 127 111
-1.73104 1.33655 6.43654 135 125 113
-1.31209 0.51817 6.86108 179 159 146
0.521007 4.03757 7.98662 96 102 95
1.13127 2.78286 7.83302 77 86 90
-0.479451 2.03808 7.76994 207 181 167
-1.98437 1.52967 6.30683 96 98 92
0.255838 1.03699 7.57054 101 107 100
0.877659 2.83146 7.97638 156 155 154
-0.858122 1.02854 7.22413 103 110 96
-1.22714 0.776484 6.9312 114 119 98
-0.177421 0.751672 7.28131 100 105 93
0.0943414 0.675924 7.34497 87 94 89
-0.160501 0.447034 7.2529 154 130 119
-0.440671 0.943878 7.28291 158 138 122
-1.83862 0.618494 6.43189 142 119 110
0.323937 1.54724 7.66691 96 100 96
-1.41441 1.05603 6.72838 147 141 126
0.977104 3.86303 7.83769 71 76 83
0.60788 1.96347 7.89856 186 180 177
-1.23163 0.467151 6.92388 124 115 104
0.292621 1.06229 7.58906 97 103 97
-1.53627 1.15772 6.6044 98 107 89
-0.0942229 1.1132 7.38296 120 95 93
-0.242938 0.431404 7.20689 96 102 92
-0.226639 0.59449 7.22526 166 127 112
-1.05646 0.765424 7.04642 111 111 98
0.107353 0.53417 7.27565 98 107 96
-0.216847 0.749432 7.24063 105 111 97
-0.216805 0.749078 7.24217 103 109 95
0.589166 3.68679 7.95681 116 118 109
-0.927673 0.639605 7.08194 104 114 94
-1.38667 1.01758 6.75829 137 133 116
-1.38719 1.01725 6.75995 137 134 116
0.0596561 0.544662 7.2614 164 124 110
0.422421 0.479228 7.42031 150 127 118
0.422421 0.479228 7.42031 150 127 118
-0.774323 3.6212 7.74977 129 121 116
-1.8247 0.653809 6.43199 146 119 110
-1.09326 0.725458 7.02013 110 108 96
-1.09353 0.725408 7.02054 108 104 93
1.96393 1.53286 7.49264 80 83 91
-0.591791 1.10823 7.34475 92 93 91
-0.835978 1.08493 7.27162 114 115 103
0.171369 2.03501 7.89222 136 116 110
0.0760238 0.493772 7.25596 96 102 94
-0.901181 2.87365 7.40592 118 108 104
0.102421 0.507131 7.27156 97 106 94
0.102421 0.507131 7.27156 97 106 94
0.479281 0.803752 7.513 101 109 101
-2.4473 1.0231 5.72341 113 103 99
-1.87497 1.48721 6.37698 110 107 96
0.129334 1.56409 7.71028 105 112 102
-1.05739 0.842431 7.047 115 112 99
-0.589804 2.1243 7.74809 136 112 109
0.144981 1.72158 7.74846 186 146 133
0.360926 0.918718 7.55122 99 110 99
0.360926 0.918718 7.55122 99 110 99
0.404599 3.76209 7.97265 137 125 127
1.33527 2.93063 7.77602 108 111 104
0.355792 1.03144 7.60057 103 107 99
-0.131051 0.969698 7.3389 104 109 94
-1.26284 0.644134 6.91669 140 102 97
-1.26308 0.643923 6.91716 137 99 95
-1.81465 0.644281 6.43566 189 167 154
-1.87744 1.25509 6.31256 105 105 94
-0.119359 1.01748 7.35137 147 122 112
-1.51079 1.46604 6.64788 136 137 114
-1.51079 1.46604 6.64788 136 137 114
0.0106586 0.417255 7.19867 150 116 104
-0.770949 3.98921 7.79959 122 110 109
0.618436 3.30982 7.94202 86 93 91
-0.989097 0.503166 7.03743 160 131 117
-0.357373 0.756613 7.2203 91 96 90
-0.0989634 1.73261 7.72535 101 103 98
-0.845673 1.67239 7.29036 111 110 99
-0.831926 0.87035 7.16604 135 119 106
-1.15046 0.654154 6.96904 105 114 93
-1.15046 0.654154 6.96904 105 114 93
-1.75781 0.726524 6.46544 147 119 112
-1.75781 0.726524 6.46544 147 119 112
-1.11142 0.481717 6.96491 105 106 95
-1.25407 0.521039 6.89601 159 141 129
-1.66888 1.21063 6.49204 143 136 119
1.20386 2.83342 7.82274 77 86 89
-1.76839 1.56442 6.49887 140 118 111
0.84006 4.15872 7.87367 94 95 93
0.128531 0.742755 7.35002 128 139 108
0.128531 0.742755 7.35002 128 139 108
-0.186048 0.521767 7.23285 100 101 91
-0.538533 0.984823 7.2732 99 108 97
0.406518 0.848601 7.52343 136 128 116
-1.25022 0.592358 6.91599 160 141 126
-0.124895 0.535775 7.28037 93 98 92
-0.222997 0.767751 7.23612 136 122 108
-2.04864 0.670652 6.2504 175 152 144
-2.04864 0.670652 6.2504 175 152 144
-0.170533 0.577687 7.25433 103 106 91
-0.123926 0.494713 7.2875 147 124 116
-1.02661 3.72786 7.38969 125 129 112
0.813539 3.97562 7.94906 67 75 84
0.257461 1.00563 7.56092 188 161 145
0.505748 0.84482 7.55 103 106 99
-1.44997 1.38516 6.6735 96 103 87
-1.89743 0.586022 6.39095 159 136 125
-0.702738 2.71719 7.81539 183 159 147
2.04484 0.797294 7.6196 165 143 135
2.04484 0.797294 7.6196 165 143 135
-1.29611 0.51184 6.87135 123 117 105
-0.891973 0.383848 7.06519 99 107 92
-0.891973 0.383848 7.06519 99 107 92
3.08305 0.824785 6.92053 56 67 72
-1.08514 1.31192 7.04437 101 106 96
1.76331 2.13305 7.83633 128 138 121
-0.812634 0.842891 7.1579 144 119 105
-1.82829 1.56691 6.45693 135 113 107
-1.29061 0.906278 6.86834 138 135 117
-1.67488 0.986062 6.51507 120 117 103
-1.67488 0.986062 6.51507 120 117 103
-0.457759 0.903657 7.27113 179 140 124
1.46195 3.60681 7.79215 116 112 102
0.416089 1.89975 7.8321 125 126 109
-0.0406748 0.846005 7.40916 167 130 115
0.387315 2.19765 7.91968 222 194 180
-0.44754 0.91317 7.27152 98 108 96
-1.80314 0.716971 6.44728 129 113 104
-1.80314 0.716971 6.44728 129 113 104
0.307822 0.870643 7.51757 98 100 95
-0.618294 3.2478 7.94371 167 145 138
-1.75288 0.756381 6.46357 185 161 148
-0.295398 0.577461 7.19648 133 123 106
-1.23473 0.40897 6.91304 125 117 102
0.440681 0.477381 7.43498 97 98 94
-1.18441 3.64938 7.32339 121 114 109
0.751846 0.579543 7.71974 155 138 135
-2.08523 0.693462 6.22327 129 109 104
-0.0766401 1.03251 7.34759 117 122 101
1.57524 2.67044 7.75215 76 86 88
-1.03478 3.37658 7.35429 156 138 130
0.494977 4.25644 8.00536 107 112 108
0.488398 3.81642 7.98645 115 114 112
0.488398 3.81642 7.98645 115 114 112
-0.196135 0.913628 7.28107 129 130 109
-0.10544 2.88199 7.91998 194 173 163
0.0316727 1.55539 7.62898 117 126 107
-0.209037 0.930308 7.30654 123 129 103
-0.8257 0.697009 7.11166 119 118 103
-0.671409 2.92108 7.6885 168 151 145
0.850265 2.9379 7.95417 117 121 119
-1.25597 0.452207 6.9072 124 112 104
-1.08287 0.511228 6.98879 100 104 93
-0.802049 3.98323 7.73906 153 143 131
-1.48059 1.66418 6.6899 113 121 100
0.118857 0.721857 7.33951 123 133 104
-0.88931 1.06113 7.23404 98 102 93
-1.52122 0.719347 6.68037 150 137 123
-0.643324 3.81353 7.95533 118 110 111
-1.5147 1.32472 6.61746 132 126 111
0.422375 2.2727 7.89858 212 193 185
-1.67823 0.621668 6.55979 171 149 139
-0.662613 1.9341 7.61057 184 154 139
-2.0063 1.08108 6.20709 146 129 120
1.89325 2.2078 7.70941 81 88 95
1.72285 1.92109 7.90168 231 224 221
-0.012282 1.15509 7.38954 106 113 98
-0.60587 3.3211 7.93952 136 122 118
-0.361351 1.09466 7.3719 95 103 92
-0.237807 0.534241 7.21751 95 99 90
-1.85723 0.632618 6.41484 146 121 111
2.02072 3.01812 7.49625 60 70 76
0.878594 3.78605 7.85335 72 84 84
0.615353 1.87398 7.89277 217 207 202
-0.494093 1.06791 7.30889 124 127 105
0.507167 4.11568 7.99281 150 141 141
-1.28235 0.441909 6.89483 130 114 105
0.390656 0.305194 7.37719 92 99 96
0.120767 0.545233 7.28464 138 127 108
